ply
format ascii 1.0
element vertex 806
property float x 
property float y
property float z
property float nx 
property float ny
property float nz
end_header
-0.059282 -0.054325 -0.030570 -0.498192 -0.839595 -0.216527 
-0.062140 -0.047573 -0.031912 -0.513235 -0.822946 -0.243621 
-0.064704 -0.040827 -0.033113 -0.540595 -0.795040 -0.275080 
-0.067920 -0.034112 -0.034615 -0.564525 -0.766986 -0.305032 
-0.072252 -0.027427 -0.036644 -0.589584 -0.737661 -0.329009 
-0.074963 -0.020719 -0.037919 -0.609564 -0.710261 -0.352081 
-0.076804 -0.013994 -0.038776 -0.630967 -0.693428 -0.347907 
-0.076329 -0.007209 -0.038552 -0.652374 -0.674710 -0.345217 
-0.074810 -0.000384 -0.037830 -0.679614 -0.652042 -0.336103 
-0.072072 0.006495 -0.036541 -0.715892 -0.628453 -0.304215 
-0.070683 0.013334 -0.035885 -0.758435 -0.599330 -0.256088 
-0.070010 0.020144 -0.035570 -0.792349 -0.570597 -0.215876 
-0.069859 0.026936 -0.035491 -0.823807 -0.542931 -0.162994 
-0.070245 0.033715 -0.035672 -0.852567 -0.510827 -0.110379 
-0.069597 0.040532 -0.035359 -0.867935 -0.495677 -0.031526 
-0.069744 0.047310 -0.035429 -0.879591 -0.474905 0.028034 
-0.070057 0.054088 -0.035574 -0.887710 -0.451428 0.090458 
-0.068785 0.060934 -0.034967 -0.899623 -0.419131 0.122509 
-0.068971 0.067721 -0.035047 -0.906565 -0.392494 0.155201 
-0.068569 0.074529 -0.034860 -0.910884 -0.366883 0.188912 
-0.068383 0.081331 -0.034771 -0.913950 -0.349319 0.206575 
-0.067567 0.088171 -0.034383 -0.919000 -0.324816 0.223458 
-0.066704 0.095017 -0.033974 -0.922480 -0.308192 0.232484 
-0.065527 0.101887 -0.033415 -0.932550 -0.281371 0.226233 
-0.063931 0.108787 -0.032664 -0.939468 -0.264122 0.218264 
-0.062166 0.115703 -0.031827 -0.953427 -0.235493 0.188468 
-0.060330 0.122633 -0.030965 -0.962252 -0.226051 0.151564 
-0.058339 0.129579 -0.030024 -0.972121 -0.197818 0.125892 
-0.055907 0.136563 -0.028880 -0.976894 -0.193647 0.090434 
-0.053081 0.143586 -0.027547 -0.978980 -0.184180 0.087617 
-0.049940 0.150646 -0.026065 -0.976889 -0.183378 0.109820 
-0.048132 0.157613 -0.025216 -0.978782 -0.184356 0.089431 
-0.044833 0.164705 -0.023663 -0.977468 -0.198203 0.072597 
-0.042328 0.171750 -0.022483 -0.977151 -0.202408 0.064859 
-0.040049 0.178778 -0.021407 -0.975919 -0.210653 0.056635 
-0.038548 0.185755 -0.020703 -0.974794 -0.216848 0.052461 
-0.036954 0.192746 -0.019944 -0.971536 -0.227587 0.065747 
-0.035351 0.199737 -0.019190 -0.968904 -0.237879 0.068103 
-0.033236 0.206788 -0.018195 -0.964668 -0.252739 0.074418 
-0.031579 0.213802 -0.017412 -0.960274 -0.267808 0.078446 
-0.030217 0.220793 -0.016769 -0.956483 -0.282379 0.073506 
-0.029053 0.227768 -0.016217 -0.949715 -0.300476 0.088068 
-0.027875 0.234751 -0.015658 -0.941838 -0.318716 0.106589 
-0.026979 0.241712 -0.015231 -0.933007 -0.334813 0.131899 
-0.026485 0.248635 -0.014996 -0.926569 -0.348389 0.141753 
-0.026202 0.255534 -0.014860 -0.921734 -0.365206 0.130500 
-0.025414 0.262493 -0.014487 -0.911193 -0.380789 0.157250 
-0.024785 0.269439 -0.014185 -0.896489 -0.413381 0.159444 
-0.023877 0.276414 -0.013761 -0.879481 -0.440134 0.181098 
-0.023904 0.283282 -0.013769 -0.836224 -0.511584 0.197511 
-0.023924 0.290160 -0.013775 -0.813731 -0.544480 0.203430 
-0.023786 0.297050 -0.013704 -0.724859 -0.651225 0.224691 
-0.024380 0.303859 -0.013979 -0.669881 -0.701093 0.244394 
-0.026070 0.310537 -0.014769 -0.552414 -0.792304 0.259026 
-0.029140 0.317035 -0.016208 -0.422353 -0.866548 0.265921 
-0.041698 0.322344 -0.022104 -0.236849 -0.928414 0.286274 
-0.052821 0.327794 -0.027325 -0.128279 -0.943618 0.305172 
-0.062124 0.333431 -0.031687 -0.068536 -0.946123 0.316472 
-0.067611 0.339525 -0.034259 -0.113721 -0.934306 0.337850 
-0.072772 0.345642 -0.036683 -0.166222 -0.920263 0.354244 
-0.078252 0.351699 -0.039252 -0.224841 -0.903897 0.363893 
-0.084293 0.357656 -0.042083 -0.282694 -0.886464 0.366423 
-0.090853 0.363515 -0.045156 -0.336535 -0.870147 0.359985 
-0.096735 0.369451 -0.047918 -0.391057 -0.848653 0.356179 
-0.101829 0.375469 -0.050309 -0.449803 -0.821133 0.351310 
-0.106015 0.381602 -0.052271 -0.513759 -0.786771 0.342116 
-0.109551 0.387811 -0.053926 -0.586465 -0.739203 0.331117 
-0.112499 0.394089 -0.055305 -0.641920 -0.692733 0.328725 
-0.114822 0.400449 -0.056395 -0.696575 -0.640388 0.323554 
-0.116010 0.406977 -0.056952 -0.736105 -0.598713 0.315742 
-0.116743 0.413566 -0.057289 -0.771362 -0.556901 0.307998 
-0.116535 0.420300 -0.057189 -0.799064 -0.521639 0.298978 
-0.115392 0.427177 -0.056647 -0.832865 -0.471759 0.289447 
-0.113962 0.434107 -0.055970 -0.869032 -0.414249 0.270519 
-0.108869 0.441629 -0.053580 -0.900881 -0.345082 0.263308 
0.147011 -0.266475 0.058237 0.262512 -0.893688 0.363884 
0.124620 -0.258452 0.047771 0.124313 -0.927260 0.353179 
0.107426 -0.250696 0.039736 0.058265 -0.939600 0.337281 
0.095352 -0.243172 0.034100 -0.003542 -0.943691 0.330811 
0.085931 -0.235781 0.029696 -0.023021 -0.947172 0.319900 
0.076420 -0.228421 0.025257 -0.046961 -0.950993 0.305630 
0.065512 -0.221060 0.020161 -0.058188 -0.957527 0.282416 
0.054523 -0.213739 0.015026 -0.093048 -0.964356 0.247711 
0.045176 -0.206499 0.010661 -0.133250 -0.966915 0.217533 
0.036910 -0.199318 0.006802 -0.201310 -0.962067 0.184124 
0.030153 -0.192198 0.003646 -0.256152 -0.952676 0.163689 
0.023889 -0.185114 0.000721 -0.288123 -0.946033 0.148350 
0.018260 -0.178061 -0.001904 -0.321177 -0.938003 0.130371 
0.013544 -0.171044 -0.004106 -0.341245 -0.932844 0.115571 
0.009354 -0.164049 -0.006061 -0.347802 -0.931581 0.105801 
0.004918 -0.157070 -0.008133 -0.354678 -0.930398 0.092540 
0.000418 -0.150115 -0.010228 -0.360056 -0.929777 0.076643 
-0.004920 -0.143158 -0.012723 -0.364581 -0.929467 0.056333 
-0.009968 -0.136232 -0.015073 -0.369080 -0.928713 0.035685 
-0.014691 -0.129322 -0.017280 -0.380613 -0.924661 0.011700 
-0.019188 -0.122434 -0.019382 -0.393520 -0.919228 -0.012813 
-0.023668 -0.115560 -0.021465 -0.402891 -0.914636 -0.033503 
-0.027884 -0.108702 -0.023435 -0.414403 -0.908304 -0.057049 
-0.031320 -0.101858 -0.025038 -0.427101 -0.900882 -0.077445 
-0.034516 -0.095022 -0.026532 -0.439178 -0.893118 -0.097273 
-0.037482 -0.088200 -0.027909 -0.450406 -0.885370 -0.115134 
-0.040784 -0.081388 -0.029455 -0.463290 -0.876019 -0.133995 
-0.044484 -0.074597 -0.031175 -0.476693 -0.865637 -0.153092 
-0.048802 -0.067828 -0.033194 -0.489075 -0.853842 -0.178217 
-0.051521 -0.061052 -0.034457 -0.499142 -0.842774 -0.201471 
-0.053895 -0.054277 -0.035565 -0.512492 -0.827359 -0.229844 
-0.055324 -0.047491 -0.036232 -0.525395 -0.810839 -0.257880 
-0.056447 -0.040706 -0.036749 -0.549099 -0.785866 -0.284437 
-0.057748 -0.033936 -0.037353 -0.573774 -0.759123 -0.307440 
-0.062105 -0.027244 -0.039393 -0.599288 -0.733290 -0.321156 
-0.067488 -0.020592 -0.041903 -0.616439 -0.716053 -0.327526 
-0.070301 -0.013890 -0.043213 -0.633083 -0.703480 -0.322992 
-0.070635 -0.007120 -0.043368 -0.650020 -0.694008 -0.309560 
-0.069150 -0.000288 -0.042663 -0.678283 -0.680091 -0.278225 
-0.065841 0.006614 -0.041113 -0.699613 -0.676051 -0.231290 
-0.064866 0.013439 -0.040655 -0.734036 -0.655605 -0.177126 
-0.064131 0.020262 -0.040310 -0.767329 -0.626262 -0.137852 
-0.064931 0.027024 -0.040680 -0.808860 -0.586092 -0.047337 
-0.065724 0.033780 -0.041048 -0.832754 -0.553068 0.025235 
-0.066956 0.040512 -0.041618 -0.846805 -0.523287 0.095354 
-0.067395 0.047283 -0.041817 -0.855119 -0.488970 0.172280 
-0.067570 0.054061 -0.041900 -0.860142 -0.456738 0.227039 
-0.067835 0.060839 -0.042021 -0.869508 -0.419296 0.261050 
-0.068259 0.067601 -0.042211 -0.873461 -0.382424 0.301364 
-0.068745 0.074357 -0.042434 -0.872821 -0.358236 0.331435 
-0.068997 0.081128 -0.042547 -0.878371 -0.324255 0.351172 
-0.068304 0.087951 -0.042222 -0.888325 -0.291428 0.354891 
-0.067447 0.094790 -0.041814 -0.894883 -0.264927 0.359166 
-0.066527 0.101638 -0.041384 -0.903786 -0.241074 0.353631 
-0.064773 0.108537 -0.040562 -0.918764 -0.208391 0.335328 
-0.062983 0.115455 -0.039721 -0.932320 -0.184703 0.310908 
-0.061211 0.122369 -0.038883 -0.947487 -0.160299 0.276717 
-0.058875 0.129330 -0.037787 -0.957393 -0.148332 0.247785 
-0.056586 0.136300 -0.036713 -0.965709 -0.141735 0.217525 
-0.053811 0.143314 -0.035415 -0.971144 -0.150336 0.185143 
-0.050822 0.150351 -0.034016 -0.973255 -0.150636 0.173452 
-0.048132 0.157381 -0.032752 -0.975216 -0.157815 0.155076 
-0.044829 0.164471 -0.031207 -0.973182 -0.162277 0.163045 
-0.042299 0.171508 -0.030022 -0.973026 -0.171655 0.154127 
-0.040217 0.178515 -0.029044 -0.970618 -0.177086 0.162918 
-0.038439 0.185507 -0.028201 -0.969973 -0.194093 0.146563 
-0.036799 0.192498 -0.027436 -0.967260 -0.201124 0.154784 
-0.034750 0.199520 -0.026475 -0.964628 -0.212293 0.156287 
-0.032648 0.206563 -0.025488 -0.960514 -0.227606 0.160025 
-0.030839 0.213585 -0.024638 -0.956480 -0.242116 0.162863 
-0.029364 0.220583 -0.023947 -0.952791 -0.260625 0.155767 
-0.028133 0.227567 -0.023362 -0.945064 -0.281535 0.166108 
-0.027288 0.234512 -0.022968 -0.938517 -0.298708 0.173088 
-0.026562 0.241448 -0.022618 -0.928391 -0.317610 0.192913 
-0.026061 0.248364 -0.022380 -0.920119 -0.336464 0.200433 
-0.025532 0.255287 -0.022129 -0.910257 -0.349169 0.222516 
-0.024839 0.262232 -0.021803 -0.898934 -0.365252 0.241885 
-0.024311 0.269162 -0.021552 -0.884846 -0.385672 0.261352 
-0.023996 0.276060 -0.021399 -0.870522 -0.406965 0.276714 
-0.023616 0.282975 -0.021221 -0.832739 -0.466617 0.298017 
-0.023534 0.289859 -0.021176 -0.791798 -0.528970 0.305362 
-0.023695 0.296713 -0.021253 -0.734320 -0.599661 0.318089 
-0.023406 0.303619 -0.021113 -0.686123 -0.655097 0.316359 
-0.024700 0.310337 -0.021713 -0.556427 -0.765307 0.323567 
-0.027246 0.316895 -0.022898 -0.436641 -0.841584 0.317933 
-0.038166 0.322411 -0.028001 -0.244646 -0.915572 0.319180 
-0.049120 0.327880 -0.033121 -0.141225 -0.939161 0.313104 
-0.060019 0.333313 -0.038213 -0.066627 -0.948232 0.310514 
-0.065907 0.339361 -0.040960 -0.103456 -0.939811 0.325660 
-0.070989 0.345485 -0.043328 -0.150315 -0.930318 0.334536 
-0.076933 0.351474 -0.046112 -0.230329 -0.911459 0.340872 
-0.083447 0.357363 -0.049146 -0.287577 -0.897441 0.334513 
-0.089951 0.363230 -0.052184 -0.338781 -0.881570 0.328728 
-0.095481 0.369210 -0.054768 -0.388381 -0.863391 0.322054 
-0.100209 0.375275 -0.056977 -0.452909 -0.833480 0.316520 
-0.104644 0.381370 -0.059048 -0.512539 -0.800014 0.311899 
-0.107952 0.387610 -0.060587 -0.582561 -0.755566 0.299572 
-0.110826 0.393902 -0.061928 -0.632634 -0.716502 0.293939 
-0.113132 0.400263 -0.063002 -0.695173 -0.659489 0.286023 
-0.114466 0.406760 -0.063623 -0.737091 -0.613067 0.284330 
-0.115211 0.413349 -0.063966 -0.776898 -0.565467 0.276904 
-0.115106 0.420059 -0.063918 -0.803222 -0.534914 0.262107 
-0.114614 0.426839 -0.063676 -0.836929 -0.486129 0.251452 
-0.113268 0.433745 -0.063050 -0.871413 -0.431863 0.232667 
-0.109263 0.441086 -0.061170 -0.904740 -0.363140 0.222656 
0.214451 -0.276293 0.081682 0.477183 -0.844999 0.241399 
0.147119 -0.266353 0.050349 0.242825 -0.907239 0.343442 
0.124708 -0.258337 0.039925 0.110235 -0.934026 0.339771 
0.108636 -0.250626 0.032449 0.047398 -0.944787 0.324243 
0.096951 -0.243116 0.027016 -0.005566 -0.947572 0.319495 
0.087972 -0.235741 0.022844 -0.033864 -0.951714 0.305113 
0.078373 -0.228387 0.018377 -0.056636 -0.954313 0.293393 
0.067949 -0.221042 0.013532 -0.072668 -0.959471 0.272281 
0.057862 -0.213741 0.008838 -0.102603 -0.964595 0.242960 
0.048092 -0.206495 0.004304 -0.144039 -0.967512 0.207787 
0.039947 -0.199313 0.000513 -0.211732 -0.962665 0.168658 
0.033307 -0.192194 -0.002575 -0.254838 -0.955463 0.148824 
0.027357 -0.185119 -0.005335 -0.294467 -0.945912 0.136158 
0.021917 -0.178064 -0.007865 -0.329043 -0.936450 0.121623 
0.016886 -0.171047 -0.010199 -0.349340 -0.930827 0.107346 
0.012260 -0.164045 -0.012348 -0.357437 -0.929072 0.095208 
0.007666 -0.157068 -0.014489 -0.364733 -0.927458 0.082422 
0.003021 -0.150103 -0.016647 -0.370912 -0.926205 0.067598 
-0.002230 -0.143155 -0.019083 -0.376188 -0.925111 0.051507 
-0.007176 -0.136229 -0.021383 -0.385050 -0.922431 0.029288 
-0.011515 -0.129317 -0.023396 -0.393232 -0.919401 0.008473 
-0.015714 -0.122430 -0.025349 -0.405098 -0.914204 -0.011269 
-0.019879 -0.115556 -0.027284 -0.417005 -0.908243 -0.034684 
-0.023690 -0.108691 -0.029052 -0.429020 -0.901330 -0.059570 
-0.026929 -0.101847 -0.030557 -0.437894 -0.895440 -0.080236 
-0.029903 -0.095009 -0.031939 -0.447279 -0.888556 -0.102042 
-0.033014 -0.088181 -0.033380 -0.457331 -0.880762 -0.122914 
-0.036085 -0.081367 -0.034802 -0.468973 -0.871753 -0.141813 
-0.039291 -0.074569 -0.036291 -0.484822 -0.859433 -0.162251 
-0.043388 -0.067793 -0.038193 -0.502028 -0.844557 -0.186260 
-0.046722 -0.061017 -0.039746 -0.521584 -0.825378 -0.216109 
-0.049519 -0.054249 -0.041039 -0.527795 -0.814549 -0.240713 
-0.050757 -0.047464 -0.041613 -0.538263 -0.798635 -0.269176 
-0.051409 -0.040663 -0.041909 -0.556050 -0.778647 -0.290722 
-0.051675 -0.033854 -0.042029 -0.576802 -0.759039 -0.301926 
-0.051795 -0.027047 -0.042086 -0.595044 -0.741604 -0.309754 
-0.055193 -0.020332 -0.043662 -0.617261 -0.726245 -0.302586 
-0.061113 -0.013700 -0.046416 -0.631645 -0.721313 -0.284135 
-0.063544 -0.006985 -0.047543 -0.646920 -0.721237 -0.247612 
-0.062955 -0.000176 -0.047262 -0.663874 -0.721220 -0.197777 
-0.060268 0.006711 -0.046007 -0.680443 -0.719272 -0.140160 
-0.060246 0.013504 -0.045991 -0.703085 -0.703506 -0.103696 
-0.060553 0.020290 -0.046133 -0.736738 -0.675171 -0.036873 
-0.062217 0.027013 -0.046902 -0.779913 -0.623756 0.051625 
-0.064196 0.033722 -0.047820 -0.794318 -0.590903 0.141043 
-0.065810 0.040431 -0.048573 -0.803361 -0.554677 0.216669 
-0.066749 0.047171 -0.049005 -0.811309 -0.513890 0.278735 
-0.067420 0.053925 -0.049311 -0.821652 -0.472771 0.318396 
-0.067959 0.060680 -0.049559 -0.831017 -0.431687 0.350794 
-0.068945 0.067406 -0.050014 -0.831592 -0.399269 0.386056 
-0.069498 0.074154 -0.050270 -0.842500 -0.360699 0.400112 
-0.069738 0.080917 -0.050378 -0.848584 -0.324147 0.418130 
-0.069374 0.087718 -0.050200 -0.858807 -0.287467 0.424045 
-0.068640 0.094541 -0.049855 -0.869049 -0.254926 0.423987 
-0.067506 0.101389 -0.049326 -0.883439 -0.220503 0.413419 
-0.065657 0.108291 -0.048456 -0.900870 -0.181014 0.394546 
-0.063703 0.115205 -0.047543 -0.916203 -0.152529 0.370549 
-0.061712 0.122128 -0.046618 -0.932635 -0.124550 0.338646 
-0.059544 0.129075 -0.045606 -0.943684 -0.109902 0.312064 
-0.057068 0.136051 -0.044449 -0.946822 -0.097025 0.306779 
-0.054273 0.143059 -0.043140 -0.949838 -0.095669 0.297749 
-0.051099 0.150103 -0.041659 -0.953999 -0.107406 0.279912 
-0.048238 0.157140 -0.040325 -0.956414 -0.114410 0.268667 
-0.045406 0.164186 -0.039007 -0.957143 -0.124871 0.261314 
-0.042891 0.171215 -0.037829 -0.956828 -0.133476 0.258192 
-0.040676 0.178228 -0.036793 -0.956761 -0.138652 0.255704 
-0.038804 0.185220 -0.035920 -0.956020 -0.149499 0.252338 
-0.036974 0.192210 -0.035060 -0.952295 -0.162669 0.258215 
-0.035141 0.199218 -0.034207 -0.950345 -0.174682 0.257545 
-0.033083 0.206247 -0.033249 -0.947285 -0.189623 0.258253 
-0.031152 0.213276 -0.032339 -0.943007 -0.207587 0.260085 
-0.029538 0.220282 -0.031588 -0.937913 -0.227146 0.262155 
-0.028044 0.227280 -0.030886 -0.933448 -0.247594 0.259563 
-0.026952 0.234249 -0.030378 -0.924230 -0.270709 0.269285 
-0.026231 0.241179 -0.030039 -0.913222 -0.292211 0.283969 
-0.025689 0.248093 -0.029780 -0.900975 -0.314920 0.298444 
-0.025195 0.255008 -0.029548 -0.890984 -0.328858 0.313048 
-0.024472 0.261946 -0.029207 -0.879787 -0.345352 0.326661 
-0.023911 0.268875 -0.028940 -0.868075 -0.362141 0.339556 
-0.023424 0.275790 -0.028709 -0.854737 -0.389525 0.343067 
-0.023497 0.282652 -0.028740 -0.829949 -0.432296 0.352568 
-0.023398 0.289529 -0.028696 -0.782312 -0.501543 0.369380 
-0.023150 0.296420 -0.028576 -0.746521 -0.553499 0.369249 
-0.023168 0.303289 -0.028581 -0.707223 -0.607985 0.360820 
-0.024155 0.310037 -0.029037 -0.575033 -0.729197 0.370956 
-0.025832 0.316700 -0.029813 -0.443861 -0.821040 0.359002 
-0.035208 0.322398 -0.034168 -0.272984 -0.903795 0.329602 
-0.046139 0.327875 -0.039252 -0.153766 -0.939475 0.306176 
-0.058089 0.333179 -0.044809 -0.073954 -0.951170 0.299679 
-0.064159 0.339198 -0.047630 -0.090999 -0.948308 0.304025 
-0.070187 0.345194 -0.050438 -0.151846 -0.938316 0.310657 
-0.076471 0.351135 -0.053357 -0.223448 -0.924330 0.309333 
-0.083014 0.357018 -0.056398 -0.298263 -0.904294 0.305438 
-0.089332 0.362906 -0.059335 -0.344116 -0.889679 0.300096 
-0.094148 0.368978 -0.061571 -0.388605 -0.873555 0.293068 
-0.098463 0.375105 -0.063580 -0.453234 -0.845175 0.283304 
-0.102506 0.381252 -0.065456 -0.512919 -0.813776 0.273284 
-0.105758 0.387499 -0.066968 -0.571945 -0.777514 0.261440 
-0.108396 0.393822 -0.068190 -0.630018 -0.733665 0.254584 
-0.110493 0.400214 -0.069159 -0.684505 -0.685128 0.249107 
-0.111765 0.406726 -0.069750 -0.734796 -0.635108 0.238145 
-0.112579 0.413299 -0.070127 -0.774410 -0.587521 0.234750 
-0.112428 0.420018 -0.070049 -0.802018 -0.557504 0.214375 
-0.111917 0.426797 -0.069813 -0.838007 -0.505987 0.204259 
-0.111142 0.433613 -0.069447 -0.867619 -0.456947 0.196055 
-0.107428 0.440907 -0.067711 -0.910059 -0.376741 0.172797 
0.198044 -0.275481 0.066017 0.395046 -0.845441 0.359401 
0.147302 -0.266231 0.042517 0.233634 -0.913012 0.334403 
0.125620 -0.258244 0.032473 0.098685 -0.939739 0.327343 
0.110154 -0.250562 0.025309 0.043854 -0.948757 0.312949 
0.098654 -0.243068 0.019994 -0.012620 -0.952634 0.303858 
0.089663 -0.235692 0.015832 -0.037110 -0.955882 0.291400 
0.079299 -0.228317 0.011034 -0.066113 -0.959504 0.273829 
0.069952 -0.221001 0.006702 -0.088409 -0.962683 0.255786 
0.061722 -0.213760 0.002894 -0.116857 -0.966014 0.230569 
0.051946 -0.206506 -0.001627 -0.160174 -0.967704 0.194663 
0.043275 -0.199311 -0.005637 -0.219406 -0.963084 0.155987 
0.036500 -0.192191 -0.008776 -0.259588 -0.956533 0.132893 
0.030774 -0.185121 -0.011425 -0.298310 -0.947326 0.116558 
0.025412 -0.178068 -0.013907 -0.333436 -0.937300 0.101442 
0.020398 -0.171051 -0.016225 -0.354253 -0.930918 0.088872 
0.015989 -0.164049 -0.018264 -0.362035 -0.928981 0.076972 
0.011147 -0.157071 -0.020504 -0.371344 -0.926342 0.063211 
0.006054 -0.150100 -0.022853 -0.379234 -0.923928 0.050393 
0.001072 -0.143151 -0.025163 -0.387677 -0.921238 0.032074 
-0.003461 -0.136226 -0.027257 -0.394796 -0.918639 0.015512 
-0.007584 -0.129322 -0.029162 -0.404673 -0.914443 -0.005735 
-0.011273 -0.122425 -0.030867 -0.415117 -0.909435 -0.024616 
-0.014941 -0.115551 -0.032562 -0.428323 -0.902301 -0.048910 
-0.018543 -0.108685 -0.034225 -0.440831 -0.894764 -0.071174 
-0.022113 -0.101833 -0.035879 -0.447283 -0.889714 -0.091363 
-0.025516 -0.094998 -0.037449 -0.456897 -0.882026 -0.115217 
-0.028952 -0.088168 -0.039037 -0.465579 -0.874604 -0.135299 
-0.032572 -0.081363 -0.040709 -0.478467 -0.864303 -0.155084 
-0.035897 -0.074556 -0.042249 -0.493727 -0.851894 -0.174672 
-0.038542 -0.067765 -0.043475 -0.516783 -0.832598 -0.199295 
-0.041650 -0.060981 -0.044906 -0.538306 -0.811238 -0.228300 
-0.044558 -0.054213 -0.046247 -0.546328 -0.798398 -0.253153 
-0.046942 -0.047444 -0.047351 -0.556185 -0.784124 -0.275335 
-0.047573 -0.040644 -0.047637 -0.562974 -0.775537 -0.285665 
-0.047481 -0.033828 -0.047595 -0.578190 -0.762900 -0.289275 
-0.046418 -0.026981 -0.047094 -0.591134 -0.758663 -0.273848 
-0.046153 -0.020157 -0.046975 -0.602984 -0.758704 -0.246535 
-0.047072 -0.013371 -0.047395 -0.619880 -0.751998 -0.224164 
-0.054240 -0.006788 -0.050707 -0.625176 -0.764112 -0.159019 
-0.055768 -0.000034 -0.051415 -0.634878 -0.765588 -0.103943 
-0.055360 0.006776 -0.051224 -0.653688 -0.754095 -0.063503 
-0.056197 0.013545 -0.051605 -0.666467 -0.745522 0.004399 
-0.058380 0.020254 -0.052607 -0.704591 -0.704702 0.083356 
-0.061450 0.026925 -0.054030 -0.728725 -0.661389 0.177548 
-0.063835 0.033603 -0.055133 -0.750119 -0.615692 0.241341 
-0.065796 0.040304 -0.056035 -0.753022 -0.586385 0.298518 
-0.066836 0.047029 -0.056517 -0.769053 -0.534419 0.350649 
-0.067846 0.053761 -0.056975 -0.783642 -0.484569 0.388712 
-0.068757 0.060486 -0.057393 -0.792492 -0.434474 0.428006 
-0.069371 0.067225 -0.057679 -0.803235 -0.384727 0.454752 
-0.069913 0.073972 -0.057921 -0.803588 -0.347600 0.483137 
-0.070378 0.080714 -0.058133 -0.811731 -0.308321 0.496015 
-0.070107 0.087500 -0.058010 -0.822970 -0.267684 0.501064 
-0.069483 0.094308 -0.057711 -0.836364 -0.229011 0.498045 
-0.068491 0.101149 -0.057254 -0.853824 -0.188285 0.485318 
-0.066173 0.108064 -0.056174 -0.873113 -0.142407 0.466256 
-0.064080 0.114988 -0.055200 -0.889188 -0.107795 0.444663 
-0.062062 0.121902 -0.054263 -0.908094 -0.080582 0.410941 
-0.059556 0.128864 -0.053099 -0.920736 -0.067929 0.384229 
-0.057184 0.135825 -0.051993 -0.931971 -0.063419 0.356943 
-0.054526 0.142817 -0.050761 -0.937705 -0.068289 0.340655 
-0.051472 0.149847 -0.049339 -0.941637 -0.078539 0.327339 
-0.048303 0.156900 -0.047869 -0.943482 -0.091228 0.318621 
-0.045949 0.163898 -0.046772 -0.943737 -0.099563 0.315354 
-0.043738 0.170898 -0.045748 -0.941256 -0.108767 0.319699 
-0.041571 0.177898 -0.044735 -0.940656 -0.118380 0.318044 
-0.039627 0.184889 -0.043835 -0.940036 -0.129202 0.315658 
-0.037480 0.191911 -0.042833 -0.939288 -0.139637 0.313431 
-0.035394 0.198924 -0.041862 -0.937974 -0.151698 0.311755 
-0.033508 0.205938 -0.040983 -0.935578 -0.166446 0.311429 
-0.031365 0.212975 -0.039991 -0.931577 -0.184445 0.313278 
-0.029458 0.220005 -0.039100 -0.926759 -0.204998 0.314790 
-0.027993 0.226995 -0.038423 -0.919580 -0.228483 0.319636 
-0.026665 0.233979 -0.037796 -0.910943 -0.253681 0.325311 
-0.025976 0.240901 -0.037474 -0.898683 -0.274102 0.342398 
-0.025398 0.247814 -0.037206 -0.886678 -0.298354 0.353253 
-0.024877 0.254722 -0.036957 -0.876037 -0.316588 0.363774 
-0.024223 0.261652 -0.036652 -0.865946 -0.332372 0.373721 
-0.023836 0.268551 -0.036472 -0.855087 -0.348493 0.383900 
-0.023495 0.275452 -0.036306 -0.837675 -0.373988 0.398037 
-0.023472 0.282313 -0.036290 -0.823329 -0.403542 0.399102 
-0.023421 0.289182 -0.036269 -0.785212 -0.464532 0.409453 
-0.023318 0.296051 -0.036214 -0.757533 -0.518941 0.396034 
-0.022584 0.302996 -0.035867 -0.683370 -0.610037 0.401076 
-0.023076 0.309804 -0.036094 -0.609326 -0.687233 0.395517 
-0.024268 0.316520 -0.036643 -0.481944 -0.791760 0.375298 
-0.032571 0.322356 -0.040487 -0.310486 -0.894006 0.323034 
-0.043360 0.327842 -0.045482 -0.175025 -0.938460 0.297759 
-0.055645 0.333107 -0.051167 -0.078773 -0.956390 0.281274 
-0.063220 0.338928 -0.054680 -0.084514 -0.957417 0.276066 
-0.070070 0.344817 -0.057849 -0.160775 -0.945760 0.282294 
-0.076084 0.350790 -0.060633 -0.233819 -0.929884 0.283983 
-0.082308 0.356709 -0.063505 -0.302192 -0.911917 0.277650 
-0.087668 0.362728 -0.065989 -0.342593 -0.898757 0.273618 
-0.092302 0.368823 -0.068133 -0.393725 -0.880058 0.265478 
-0.096437 0.374970 -0.070045 -0.453929 -0.855137 0.250380 
-0.099997 0.381188 -0.071686 -0.511276 -0.827538 0.231905 
-0.102923 0.387473 -0.073044 -0.574372 -0.789131 0.217646 
-0.105524 0.393803 -0.074239 -0.630611 -0.748656 0.204560 
-0.107015 0.400285 -0.074931 -0.679122 -0.707196 0.196641 
-0.108298 0.406799 -0.075518 -0.724977 -0.662919 0.186945 
-0.109064 0.413379 -0.075872 -0.768779 -0.614873 0.175814 
-0.108816 0.420112 -0.075752 -0.799692 -0.579818 0.155897 
-0.108760 0.426823 -0.075720 -0.837335 -0.526899 0.145764 
-0.108469 0.433563 -0.075587 -0.869760 -0.474303 0.136209 
-0.104997 0.440820 -0.073973 -0.914906 -0.386225 0.117369 
0.190734 -0.275054 0.054632 0.367993 -0.865730 0.339256 
0.147495 -0.266109 0.034696 0.223347 -0.921240 0.318488 
0.127216 -0.258182 0.025345 0.092772 -0.945822 0.311152 
0.112571 -0.250531 0.018602 0.035312 -0.954777 0.295220 
0.101294 -0.243042 0.013398 -0.020149 -0.958762 0.283494 
0.091126 -0.235637 0.008714 -0.046542 -0.961561 0.270620 
0.080898 -0.228269 0.004001 -0.076542 -0.963975 0.254746 
0.072166 -0.220975 -0.000023 -0.100449 -0.966000 0.238232 
0.064483 -0.213743 -0.003556 -0.133202 -0.968099 0.212237 
0.056109 -0.206523 -0.007418 -0.172009 -0.968291 0.181184 
0.047574 -0.199336 -0.011345 -0.223404 -0.963985 0.144310 
0.040128 -0.192202 -0.014777 -0.269599 -0.956013 0.115575 
0.034505 -0.185125 -0.017365 -0.302091 -0.948400 0.096328 
0.029173 -0.178078 -0.019824 -0.335645 -0.938521 0.080764 
0.024031 -0.171054 -0.022189 -0.358764 -0.931251 0.063718 
0.019733 -0.164053 -0.024165 -0.367372 -0.928697 0.050624 
0.015239 -0.157073 -0.026239 -0.375168 -0.926110 0.039635 
0.010503 -0.150110 -0.028418 -0.383515 -0.923205 0.024690 
0.005424 -0.143154 -0.030759 -0.394381 -0.918899 0.009378 
0.000949 -0.136228 -0.032815 -0.404795 -0.914334 -0.011625 
-0.002943 -0.129317 -0.034606 -0.412766 -0.910444 -0.026782 
-0.006457 -0.122419 -0.036223 -0.425016 -0.903840 -0.049378 
-0.009977 -0.115539 -0.037845 -0.437918 -0.896058 -0.072871 
-0.013485 -0.108672 -0.039459 -0.446744 -0.889791 -0.093236 
-0.017253 -0.101822 -0.041188 -0.454991 -0.883033 -0.115057 
-0.021001 -0.094978 -0.042915 -0.463042 -0.876078 -0.134464 
-0.024605 -0.088157 -0.044568 -0.469834 -0.869210 -0.154054 
-0.027973 -0.081344 -0.046122 -0.482468 -0.859246 -0.170063 
-0.031013 -0.074530 -0.047521 -0.499200 -0.845508 -0.189519 
-0.033949 -0.067738 -0.048875 -0.524533 -0.824913 -0.210674 
-0.036509 -0.060946 -0.050049 -0.549884 -0.802346 -0.232099 
-0.039029 -0.054162 -0.051204 -0.563948 -0.784925 -0.256628 
-0.041904 -0.047393 -0.052527 -0.567405 -0.779093 -0.266583 
-0.043006 -0.040603 -0.053033 -0.567165 -0.778214 -0.269644 
-0.043527 -0.033801 -0.053273 -0.573897 -0.775504 -0.263130 
-0.042193 -0.026947 -0.052652 -0.584662 -0.777422 -0.231921 
-0.041054 -0.020099 -0.052121 -0.595774 -0.777272 -0.202241 
-0.040235 -0.013252 -0.051740 -0.596538 -0.785853 -0.163030 
-0.044600 -0.006575 -0.053751 -0.608224 -0.789434 -0.082811 
-0.048144 0.000125 -0.055375 -0.604986 -0.795565 -0.032706 
-0.051607 0.006811 -0.056976 -0.609038 -0.792022 0.042122 
-0.054778 0.013488 -0.058431 -0.624368 -0.769417 0.134773 
-0.057447 0.020173 -0.059660 -0.646187 -0.734670 0.206648 
-0.061099 0.026812 -0.061339 -0.675354 -0.681584 0.281676 
-0.063726 0.033484 -0.062548 -0.695621 -0.642505 0.321402 
-0.065860 0.040162 -0.063527 -0.707015 -0.604239 0.367457 
-0.067309 0.046871 -0.064188 -0.723205 -0.553440 0.413131 
-0.068534 0.053580 -0.064755 -0.738776 -0.501229 0.450532 
-0.069672 0.060289 -0.065278 -0.749207 -0.448148 0.487702 
-0.070762 0.066999 -0.065776 -0.761731 -0.403748 0.506709 
-0.071207 0.073739 -0.065979 -0.772360 -0.363919 0.520599 
-0.071206 0.080502 -0.065973 -0.787955 -0.317540 0.527537 
-0.071015 0.087273 -0.065874 -0.803424 -0.271380 0.529963 
-0.070476 0.094075 -0.065626 -0.823509 -0.226841 0.519978 
-0.069609 0.100891 -0.065222 -0.843588 -0.180377 0.505789 
-0.067153 0.107815 -0.064082 -0.864122 -0.133949 0.485129 
-0.064698 0.114746 -0.062952 -0.880990 -0.091867 0.464132 
-0.062419 0.121677 -0.061893 -0.894980 -0.061350 0.441868 
-0.059952 0.128631 -0.060757 -0.905128 -0.039639 0.423286 
-0.057135 0.135615 -0.059454 -0.912444 -0.033187 0.407852 
-0.054237 0.142615 -0.058111 -0.917905 -0.036652 0.395104 
-0.051348 0.149630 -0.056771 -0.920341 -0.044365 0.388593 
-0.048291 0.156667 -0.055357 -0.921498 -0.055246 0.384434 
-0.045943 0.163667 -0.054271 -0.921548 -0.067890 0.382282 
-0.043900 0.170643 -0.053330 -0.920618 -0.078901 0.382410 
-0.042014 0.177611 -0.052449 -0.922027 -0.090302 0.376447 
-0.040289 0.184580 -0.051652 -0.921426 -0.100787 0.375254 
-0.038227 0.191578 -0.050701 -0.918941 -0.108423 0.379200 
-0.035934 0.198608 -0.049635 -0.920371 -0.123024 0.371189 
-0.033700 0.205645 -0.048606 -0.919225 -0.137436 0.368966 
-0.031509 0.212682 -0.047590 -0.914995 -0.152915 0.373366 
-0.029167 0.219742 -0.046507 -0.911014 -0.176366 0.372756 
-0.027479 0.226747 -0.045719 -0.905382 -0.200786 0.374123 
-0.026214 0.233723 -0.045132 -0.896405 -0.230040 0.378865 
-0.025296 0.240660 -0.044713 -0.885452 -0.260349 0.384959 
-0.024674 0.247576 -0.044414 -0.875264 -0.284014 0.391471 
-0.024129 0.254482 -0.044162 -0.864050 -0.307489 0.398584 
-0.023587 0.261397 -0.043904 -0.855253 -0.323126 0.405132 
-0.023349 0.268274 -0.043799 -0.847805 -0.337507 0.409040 
-0.023261 0.275144 -0.043751 -0.836361 -0.359742 0.413627 
-0.022992 0.282026 -0.043620 -0.827576 -0.381700 0.411611 
-0.022811 0.288903 -0.043535 -0.794604 -0.444372 0.413689 
-0.022666 0.295773 -0.043466 -0.777647 -0.483281 0.402125 
-0.022351 0.302665 -0.043313 -0.699261 -0.586552 0.408646 
-0.021838 0.309587 -0.043078 -0.643495 -0.658322 0.390545 
-0.022670 0.316342 -0.043455 -0.537028 -0.758001 0.370184 
-0.028517 0.322480 -0.046148 -0.379472 -0.869090 0.317309 
-0.040179 0.327868 -0.051521 -0.194418 -0.932602 0.304067 
-0.052737 0.333088 -0.057316 -0.095212 -0.957773 0.271308 
-0.061532 0.338756 -0.061364 -0.079839 -0.965444 0.248085 
-0.069350 0.344517 -0.064966 -0.174954 -0.951596 0.252703 
-0.075224 0.350504 -0.067672 -0.236245 -0.937053 0.257142 
-0.080867 0.356500 -0.070270 -0.298064 -0.921468 0.249110 
-0.085340 0.362633 -0.072334 -0.343714 -0.906245 0.246137 
-0.089683 0.368773 -0.074333 -0.400372 -0.886258 0.232914 
-0.093162 0.375012 -0.075934 -0.460529 -0.862317 0.210532 
-0.096195 0.381297 -0.077330 -0.510474 -0.837982 0.192879 
-0.098535 0.387681 -0.078404 -0.567840 -0.803595 0.178307 
-0.100764 0.394064 -0.079430 -0.626342 -0.762806 0.160696 
-0.102852 0.400464 -0.080384 -0.675696 -0.723047 0.143663 
-0.104574 0.406908 -0.081174 -0.719700 -0.681182 0.134248 
-0.105849 0.413413 -0.081758 -0.761517 -0.637433 0.117344 
-0.106102 0.420078 -0.081872 -0.803337 -0.586746 0.101873 
-0.106114 0.426774 -0.081874 -0.834442 -0.542760 0.095488 
-0.105927 0.433499 -0.081786 -0.871030 -0.484454 0.081309 
-0.102378 0.440763 -0.080141 -0.911594 -0.404909 0.071040 
0.185422 -0.274701 0.044203 0.356013 -0.875480 0.326791 
0.148810 -0.266031 0.027404 0.207110 -0.931533 0.298922 
0.128720 -0.258120 0.018182 0.081096 -0.953508 0.290255 
0.115733 -0.250527 0.012224 0.030572 -0.961756 0.272200 
0.104079 -0.243031 0.006882 -0.020434 -0.964584 0.262989 
0.093507 -0.235610 0.002030 -0.054980 -0.966915 0.249105 
0.083480 -0.228243 -0.002565 -0.084306 -0.968693 0.233512 
0.074410 -0.220950 -0.006725 -0.109099 -0.969546 0.219273 
0.067150 -0.213732 -0.010055 -0.144626 -0.970321 0.193814 
0.059249 -0.206520 -0.013681 -0.193008 -0.967919 0.160883 
0.051505 -0.199347 -0.017229 -0.237521 -0.962940 0.127799 
0.044162 -0.192212 -0.020600 -0.277029 -0.955603 0.100400 
0.039263 -0.185150 -0.022844 -0.310471 -0.947514 0.076338 
0.033945 -0.178096 -0.025279 -0.341591 -0.938153 0.056438 
0.028292 -0.171065 -0.027873 -0.365014 -0.930270 0.036904 
0.024019 -0.164064 -0.029828 -0.372407 -0.927740 0.024779 
0.019730 -0.157084 -0.031791 -0.380080 -0.924879 0.011702 
0.015403 -0.150121 -0.033774 -0.387728 -0.921768 -0.003632 
0.010403 -0.143164 -0.036067 -0.397925 -0.917249 -0.017646 
0.005964 -0.136231 -0.038098 -0.410333 -0.911231 -0.035881 
0.002112 -0.129318 -0.039867 -0.421704 -0.904987 -0.056260 
-0.001475 -0.122423 -0.041505 -0.434229 -0.897287 -0.079501 
-0.005012 -0.115533 -0.043125 -0.445005 -0.889764 -0.101447 
-0.008508 -0.108667 -0.044727 -0.454769 -0.881818 -0.124829 
-0.012184 -0.101808 -0.046409 -0.461695 -0.874833 -0.146651 
-0.015700 -0.094965 -0.048020 -0.467648 -0.868158 -0.166153 
-0.019017 -0.088128 -0.049539 -0.474766 -0.860965 -0.182584 
-0.022309 -0.081307 -0.051045 -0.485241 -0.851712 -0.197810 
-0.025667 -0.074501 -0.052587 -0.500681 -0.837635 -0.218372 
-0.028873 -0.067703 -0.054057 -0.524207 -0.819404 -0.231913 
-0.031457 -0.060911 -0.055236 -0.551401 -0.795444 -0.251449 
-0.033936 -0.054119 -0.056371 -0.567814 -0.779643 -0.264095 
-0.036361 -0.047344 -0.057478 -0.569120 -0.780418 -0.258940 
-0.037951 -0.040559 -0.058210 -0.565317 -0.784808 -0.253959 
-0.038873 -0.033759 -0.058625 -0.566651 -0.790403 -0.232747 
-0.037820 -0.026912 -0.058137 -0.568893 -0.801324 -0.185049 
-0.037028 -0.020071 -0.057771 -0.576163 -0.804758 -0.142835 
-0.036352 -0.013226 -0.057462 -0.570451 -0.817646 -0.077724 
-0.040074 -0.006518 -0.059167 -0.575675 -0.817675 -0.002658 
-0.044189 0.000159 -0.061053 -0.568936 -0.819351 0.070531 
-0.049165 0.006790 -0.063326 -0.567699 -0.808098 0.157150 
-0.053176 0.013436 -0.065166 -0.578024 -0.781811 0.233794 
-0.057468 0.020061 -0.067132 -0.599243 -0.744505 0.294314 
-0.060894 0.026700 -0.068706 -0.628787 -0.699302 0.340009 
-0.063587 0.033364 -0.069938 -0.651414 -0.650854 0.389936 
-0.065896 0.040027 -0.070988 -0.656655 -0.616469 0.434476 
-0.067551 0.046721 -0.071745 -0.679459 -0.566019 0.466861 
-0.069175 0.053408 -0.072494 -0.697011 -0.512680 0.501332 
-0.070709 0.060085 -0.073189 -0.718010 -0.467051 0.516068 
-0.071826 0.066788 -0.073701 -0.740253 -0.421380 0.523896 
-0.072285 0.073521 -0.073909 -0.755292 -0.379318 0.534462 
-0.072263 0.080276 -0.073895 -0.775211 -0.331080 0.537991 
-0.071988 0.087047 -0.073762 -0.796454 -0.279747 0.536098 
-0.071484 0.093834 -0.073531 -0.819632 -0.231316 0.524114 
-0.070769 0.100635 -0.073194 -0.841783 -0.180915 0.508599 
-0.068653 0.107528 -0.072217 -0.861538 -0.133357 0.489865 
-0.066080 0.114459 -0.071036 -0.879246 -0.085468 0.468638 
-0.063392 0.121406 -0.069798 -0.893369 -0.052701 0.446222 
-0.060373 0.128391 -0.068411 -0.902695 -0.028041 0.429366 
-0.057652 0.135368 -0.067156 -0.909185 -0.020199 0.415902 
-0.054380 0.142390 -0.065650 -0.912942 -0.020844 0.407555 
-0.051265 0.149411 -0.064217 -0.914699 -0.029752 0.403037 
-0.048525 0.156419 -0.062952 -0.915037 -0.041107 0.401268 
-0.046030 0.163418 -0.061800 -0.914393 -0.054148 0.401190 
-0.043814 0.170402 -0.060782 -0.913380 -0.067501 0.401473 
-0.041833 0.177378 -0.059872 -0.912374 -0.076271 0.402189 
-0.040411 0.184317 -0.059215 -0.911475 -0.084981 0.402483 
-0.038625 0.191285 -0.058385 -0.911195 -0.093896 0.401133 
-0.036538 0.198292 -0.057431 -0.910962 -0.105115 0.398870 
-0.034250 0.205321 -0.056376 -0.910636 -0.117901 0.396032 
-0.031762 0.212380 -0.055228 -0.909383 -0.136258 0.393006 
-0.029158 0.219455 -0.054023 -0.906171 -0.159660 0.391616 
-0.027225 0.226485 -0.053137 -0.901092 -0.186156 0.391637 
-0.025514 0.233490 -0.052345 -0.891914 -0.218596 0.395860 
-0.024391 0.240451 -0.051831 -0.882111 -0.249492 0.399543 
-0.023849 0.247352 -0.051572 -0.872042 -0.274872 0.404956 
-0.023378 0.254251 -0.051358 -0.861168 -0.300151 0.410245 
-0.022978 0.261142 -0.051170 -0.852541 -0.318222 0.414620 
-0.022703 0.268019 -0.051037 -0.846697 -0.331254 0.416384 
-0.022529 0.274887 -0.050955 -0.838664 -0.349680 0.417570 
-0.022626 0.281727 -0.050990 -0.831042 -0.371487 0.413964 
-0.022549 0.288588 -0.050956 -0.808403 -0.424581 0.407696 
-0.022347 0.295465 -0.050860 -0.778550 -0.473533 0.411858 
-0.021818 0.302372 -0.050609 -0.725237 -0.559742 0.400899 
-0.021440 0.309272 -0.050431 -0.693374 -0.612357 0.379804 
-0.021121 0.316164 -0.050284 -0.556294 -0.748367 0.361227 
-0.025945 0.322423 -0.052490 -0.465147 -0.827765 0.313757 
-0.034050 0.328251 -0.056211 -0.250144 -0.927674 0.277218 
-0.049403 0.333130 -0.063261 -0.127786 -0.961202 0.244465 
-0.059673 0.338608 -0.067971 -0.082546 -0.972480 0.217878 
-0.067711 0.344338 -0.071657 -0.168134 -0.958893 0.228598 
-0.073447 0.350341 -0.074286 -0.246283 -0.942775 0.224769 
-0.078552 0.356412 -0.076624 -0.302985 -0.927439 0.219216 
-0.082845 0.362568 -0.078589 -0.351606 -0.912425 0.209420 
-0.086305 0.368823 -0.080180 -0.403345 -0.895176 0.189670 
-0.089195 0.375145 -0.081504 -0.461347 -0.871460 0.166487 
-0.091914 0.381482 -0.082749 -0.508157 -0.848628 0.146994 
-0.094785 0.387791 -0.084063 -0.563173 -0.815953 0.130612 
-0.097402 0.394121 -0.085258 -0.626750 -0.771700 0.108003 
-0.099968 0.400452 -0.086437 -0.675110 -0.732089 0.090966 
-0.102167 0.406829 -0.087440 -0.714690 -0.695077 0.078011 
-0.104034 0.413242 -0.088294 -0.762962 -0.643213 0.064538 
-0.104499 0.419861 -0.088506 -0.796018 -0.601959 0.063254 
-0.104390 0.426579 -0.088447 -0.824565 -0.563249 0.053330 
-0.103777 0.433366 -0.088162 -0.866240 -0.498959 0.025842 
-0.100380 0.440607 -0.086602 -0.907387 -0.420258 0.005621 
0.183922 -0.274506 0.035561 0.331173 -0.893215 0.304126 
0.149290 -0.265924 0.019736 0.200938 -0.937692 0.283477 
0.131009 -0.258079 0.011392 0.067937 -0.961278 0.267079 
0.118681 -0.250515 0.005756 0.020919 -0.969537 0.244053 
0.106358 -0.242998 0.000131 -0.025513 -0.970697 0.238950 
0.095807 -0.235577 -0.004686 -0.060841 -0.972302 0.225671 
0.085967 -0.228224 -0.009178 -0.088111 -0.973082 0.212953 
0.077178 -0.220931 -0.013189 -0.118212 -0.973540 0.195573 
0.070184 -0.213720 -0.016378 -0.156923 -0.971843 0.175782 
0.062774 -0.206524 -0.019766 -0.206424 -0.968292 0.140719 
0.055429 -0.199365 -0.023114 -0.247053 -0.962542 0.111711 
0.048312 -0.192230 -0.026366 -0.288846 -0.953809 0.082567 
0.044174 -0.185184 -0.028252 -0.320953 -0.945368 0.057182 
0.039224 -0.178129 -0.030513 -0.351719 -0.935426 0.035683 
0.033274 -0.171082 -0.033223 -0.366070 -0.930431 0.017078 
0.028777 -0.164082 -0.035273 -0.376067 -0.926588 0.003263 
0.024179 -0.157095 -0.037373 -0.388805 -0.921198 -0.015034 
0.019608 -0.150123 -0.039462 -0.394472 -0.918405 -0.030419 
0.015317 -0.143175 -0.041417 -0.403149 -0.913943 -0.046690 
0.011273 -0.136241 -0.043258 -0.416900 -0.906658 -0.064569 
0.007314 -0.129321 -0.045064 -0.428522 -0.899545 -0.084791 
0.003759 -0.122417 -0.046685 -0.442068 -0.890472 -0.107869 
0.000166 -0.115528 -0.048327 -0.454694 -0.880702 -0.132735 
-0.003480 -0.108655 -0.049985 -0.463379 -0.872783 -0.153395 
-0.006909 -0.101789 -0.051552 -0.469656 -0.865265 -0.175328 
-0.010321 -0.094944 -0.053102 -0.473551 -0.858393 -0.197262 
-0.013655 -0.088107 -0.054622 -0.477709 -0.851891 -0.214654 
-0.016932 -0.081279 -0.056121 -0.484775 -0.842699 -0.234205 
-0.020047 -0.074466 -0.057540 -0.495541 -0.831222 -0.252013 
-0.023022 -0.067660 -0.058897 -0.520783 -0.811642 -0.264624 
-0.025719 -0.060859 -0.060123 -0.545454 -0.791635 -0.275311 
-0.028096 -0.054069 -0.061207 -0.559040 -0.783661 -0.270834 
-0.030088 -0.047277 -0.062114 -0.560501 -0.786134 -0.260447 
-0.032145 -0.040492 -0.063047 -0.557223 -0.795603 -0.237740 
-0.033427 -0.033693 -0.063633 -0.540529 -0.817730 -0.197856 
-0.033022 -0.026861 -0.063442 -0.543970 -0.823401 -0.161575 
-0.033240 -0.020045 -0.063539 -0.535947 -0.840242 -0.082193 
-0.032853 -0.013206 -0.063359 -0.540725 -0.840871 -0.023513 
-0.037590 -0.006537 -0.065521 -0.520511 -0.851479 0.063664 
-0.042824 0.000100 -0.067906 -0.514515 -0.843360 0.154982 
-0.048441 0.006709 -0.070466 -0.519585 -0.819804 0.240733 
-0.053192 0.013325 -0.072635 -0.530611 -0.794115 0.296370 
-0.057310 0.019949 -0.074513 -0.555972 -0.749563 0.359237 
-0.060313 0.026604 -0.075884 -0.593910 -0.698825 0.398641 
-0.063076 0.033260 -0.077144 -0.616014 -0.648876 0.446640 
-0.065673 0.039908 -0.078328 -0.619893 -0.618705 0.482635 
-0.067889 0.046564 -0.079331 -0.648846 -0.573963 0.499564 
-0.069556 0.053243 -0.080094 -0.673624 -0.529079 0.516048 
-0.070966 0.059929 -0.080735 -0.701345 -0.482415 0.524776 
-0.072278 0.066607 -0.081329 -0.725095 -0.441941 0.528135 
-0.072957 0.073317 -0.081638 -0.749091 -0.395383 0.531539 
-0.073313 0.080050 -0.081795 -0.769905 -0.348603 0.534530 
-0.073065 0.086814 -0.081676 -0.796800 -0.296530 0.526478 
-0.072624 0.093585 -0.081469 -0.820959 -0.241922 0.517204 
-0.072001 0.100370 -0.081187 -0.844836 -0.188214 0.500828 
-0.070077 0.107249 -0.080297 -0.864999 -0.142441 0.481131 
-0.067725 0.114157 -0.079218 -0.882609 -0.092905 0.460837 
-0.064976 0.121096 -0.077967 -0.896017 -0.050000 0.441195 
-0.061657 0.128096 -0.076436 -0.905043 -0.024516 0.424613 
-0.058382 0.135096 -0.074939 -0.911375 -0.013539 0.411353 
-0.055086 0.142118 -0.073431 -0.914677 -0.013875 0.403946 
-0.051894 0.149142 -0.071965 -0.915789 -0.022999 0.401000 
-0.048798 0.156171 -0.070548 -0.915347 -0.034949 0.401147 
-0.046603 0.163140 -0.069540 -0.913940 -0.048235 0.402970 
-0.044292 0.170123 -0.068481 -0.911996 -0.061682 0.405535 
-0.042074 0.177107 -0.067469 -0.910531 -0.070138 0.407447 
-0.040396 0.184062 -0.066693 -0.909396 -0.078335 0.408488 
-0.038689 0.191015 -0.065910 -0.909201 -0.086097 0.407357 
-0.036774 0.197998 -0.065035 -0.909527 -0.093851 0.404909 
-0.034534 0.205020 -0.064003 -0.909649 -0.106243 0.401562 
-0.032021 0.212080 -0.062853 -0.908698 -0.122441 0.399091 
-0.029236 0.219170 -0.061573 -0.905950 -0.146013 0.397410 
-0.027170 0.226198 -0.060630 -0.901182 -0.173525 0.397190 
-0.025456 0.233198 -0.059844 -0.891733 -0.208834 0.401500 
-0.023873 0.240196 -0.059116 -0.882022 -0.239937 0.405546 
-0.023385 0.247088 -0.058885 -0.871056 -0.269988 0.410326 
-0.023171 0.253956 -0.058783 -0.860928 -0.294157 0.415058 
-0.022793 0.260841 -0.058605 -0.852442 -0.314207 0.417871 
-0.022546 0.267711 -0.058496 -0.848013 -0.325692 0.418090 
-0.022384 0.274572 -0.058411 -0.843945 -0.339849 0.415040 
-0.022311 0.281426 -0.058377 -0.834506 -0.364892 0.412860 
-0.022125 0.288295 -0.058289 -0.823602 -0.401357 0.400740 
-0.021850 0.295171 -0.058156 -0.794148 -0.453348 0.404728 
-0.021497 0.302055 -0.057992 -0.767875 -0.515166 0.380753 
-0.020713 0.308993 -0.057630 -0.706737 -0.600894 0.373430 
-0.020094 0.315923 -0.057341 -0.614745 -0.707897 0.347808 
-0.023687 0.322329 -0.058982 -0.520671 -0.806570 0.279906 
-0.030342 0.328339 -0.062021 -0.305585 -0.919616 0.246829 
-0.044851 0.333330 -0.068648 -0.153595 -0.962541 0.223438 
-0.056298 0.338657 -0.073878 -0.096278 -0.977710 0.186585 
-0.065369 0.344250 -0.078014 -0.152509 -0.970977 0.184246 
-0.070805 0.350299 -0.080501 -0.242276 -0.952412 0.184969 
-0.075453 0.356424 -0.082618 -0.293621 -0.938783 0.180204 
-0.078912 0.362700 -0.084192 -0.347487 -0.923754 0.161037 
-0.081742 0.369046 -0.085486 -0.405069 -0.903537 0.139792 
-0.083973 0.375460 -0.086505 -0.448785 -0.884873 0.124871 
-0.087115 0.381745 -0.087937 -0.506970 -0.856548 0.096480 
-0.091324 0.387862 -0.089852 -0.568275 -0.819058 0.078800 
-0.095077 0.394026 -0.091565 -0.624449 -0.779070 0.055799 
-0.098377 0.400251 -0.093067 -0.672662 -0.739030 0.036893 
-0.100534 0.406626 -0.094050 -0.718412 -0.695451 0.015225 
-0.102340 0.413048 -0.094874 -0.749706 -0.661695 0.010068 
-0.102952 0.419644 -0.095150 -0.795598 -0.605821 -0.002110 
-0.102625 0.426393 -0.095000 -0.822647 -0.568230 -0.019171 
-0.101614 0.433241 -0.094533 -0.853756 -0.519575 -0.033813 
-0.097375 0.440611 -0.092594 -0.909657 -0.407586 -0.079986 
0.182698 -0.274316 0.027059 0.325591 -0.902073 0.283296 
0.150362 -0.265838 0.012355 0.198163 -0.945333 0.258993 
0.133533 -0.258052 0.004704 0.063962 -0.968922 0.238962 
0.121969 -0.250511 -0.000549 0.020606 -0.975181 0.220450 
0.109582 -0.242995 -0.006183 -0.030388 -0.976983 0.211148 
0.099205 -0.235581 -0.010901 -0.062146 -0.977311 0.202492 
0.088871 -0.228213 -0.015593 -0.094783 -0.976625 0.192930 
0.080187 -0.220928 -0.019542 -0.124387 -0.977100 0.172639 
0.073118 -0.213710 -0.022752 -0.174849 -0.973304 0.148686 
0.066306 -0.206536 -0.025850 -0.217032 -0.968587 0.121400 
0.059225 -0.199377 -0.029066 -0.258500 -0.961641 0.091787 
0.052162 -0.192241 -0.032271 -0.296361 -0.952800 0.065907 
0.048324 -0.185193 -0.034018 -0.332073 -0.942509 0.037484 
0.044124 -0.178154 -0.035919 -0.353141 -0.935361 0.019765 
0.039087 -0.171122 -0.038207 -0.370715 -0.928746 0.001363 
0.033954 -0.164107 -0.040542 -0.384709 -0.922891 -0.016495 
0.029138 -0.157112 -0.042726 -0.396171 -0.917461 -0.036239 
0.024596 -0.150134 -0.044790 -0.403881 -0.913193 -0.054400 
0.020295 -0.143184 -0.046742 -0.411855 -0.908509 -0.070619 
0.016292 -0.136243 -0.048563 -0.424441 -0.901032 -0.089389 
0.012556 -0.129323 -0.050258 -0.438484 -0.892074 -0.109255 
0.009151 -0.122420 -0.051804 -0.453599 -0.881335 -0.132277 
0.005701 -0.115524 -0.053365 -0.466033 -0.870749 -0.156882 
0.002124 -0.108641 -0.054990 -0.472252 -0.862790 -0.180481 
-0.001163 -0.101775 -0.056486 -0.479236 -0.853935 -0.202805 
-0.004387 -0.094916 -0.057941 -0.483976 -0.845582 -0.225296 
-0.007474 -0.088072 -0.059346 -0.485250 -0.839114 -0.245806 
-0.010287 -0.081236 -0.060622 -0.487309 -0.831243 -0.267517 
-0.013372 -0.074414 -0.062017 -0.492910 -0.820661 -0.289059 
-0.016804 -0.067608 -0.063577 -0.507773 -0.807406 -0.300436 
-0.019712 -0.060809 -0.064901 -0.529782 -0.795596 -0.293870 
-0.021776 -0.054002 -0.065836 -0.544551 -0.790007 -0.281696 
-0.023261 -0.047195 -0.066506 -0.548088 -0.796318 -0.255885 
-0.024960 -0.040395 -0.067276 -0.535707 -0.816537 -0.215140 
-0.026682 -0.033603 -0.068050 -0.515828 -0.840108 -0.167752 
-0.027479 -0.026795 -0.068410 -0.504972 -0.856129 -0.109755 
-0.028516 -0.019995 -0.068882 -0.488798 -0.872016 -0.025805 
-0.030146 -0.013217 -0.069617 -0.473742 -0.880042 0.033109 
-0.035821 -0.006573 -0.072198 -0.463213 -0.876537 0.130841 
-0.042478 0.000020 -0.075219 -0.466395 -0.852039 0.237708 
-0.048445 0.006604 -0.077928 -0.470428 -0.825154 0.312762 
-0.053039 0.013221 -0.080019 -0.485739 -0.793087 0.367520 
-0.056624 0.019861 -0.081647 -0.509148 -0.754555 0.414025 
-0.059623 0.026515 -0.083008 -0.544639 -0.708998 0.447986 
-0.062727 0.033148 -0.084413 -0.585259 -0.659559 0.471651 
-0.065787 0.039773 -0.085804 -0.602524 -0.631625 0.487868 
-0.067970 0.046421 -0.086790 -0.631600 -0.591397 0.501330 
-0.069549 0.053100 -0.087509 -0.661522 -0.550103 0.509681 
-0.070849 0.059778 -0.088096 -0.692558 -0.505333 0.514784 
-0.071689 0.066482 -0.088470 -0.720752 -0.460291 0.518313 
-0.072554 0.073183 -0.088864 -0.749462 -0.413567 0.516982 
-0.073455 0.079878 -0.089267 -0.771661 -0.374036 0.514430 
-0.073832 0.086595 -0.089436 -0.800936 -0.319799 0.506192 
-0.073571 0.093351 -0.089309 -0.827963 -0.259691 0.497029 
-0.072900 0.100130 -0.089004 -0.852946 -0.205059 0.480036 
-0.071117 0.106992 -0.088184 -0.873431 -0.152427 0.462476 
-0.068782 0.113886 -0.087122 -0.890532 -0.104931 0.442652 
-0.065993 0.120831 -0.085850 -0.903488 -0.057822 0.424695 
-0.063157 0.127779 -0.084555 -0.912205 -0.024936 0.408975 
-0.059685 0.134795 -0.082975 -0.917207 -0.010425 0.398275 
-0.056112 0.141824 -0.081345 -0.919755 -0.011014 0.392337 
-0.052836 0.148846 -0.079846 -0.919840 -0.019687 0.391800 
-0.049750 0.155862 -0.078442 -0.918648 -0.032550 0.393734 
-0.047173 0.162854 -0.077268 -0.916417 -0.046244 0.397544 
-0.044993 0.169822 -0.076267 -0.913793 -0.058629 0.401924 
-0.042903 0.176791 -0.075318 -0.911678 -0.070005 0.404898 
-0.041094 0.183744 -0.074486 -0.910619 -0.075599 0.406272 
-0.038991 0.190728 -0.073532 -0.910466 -0.081838 0.405406 
-0.036886 0.197727 -0.072567 -0.911024 -0.087542 0.402952 
-0.034668 0.204734 -0.071556 -0.911208 -0.097687 0.400193 
-0.032230 0.211778 -0.070443 -0.910295 -0.112399 0.398410 
-0.029407 0.218861 -0.069154 -0.907494 -0.135111 0.397742 
-0.027101 0.225914 -0.068098 -0.902684 -0.162875 0.398288 
-0.025242 0.232927 -0.067248 -0.893388 -0.198895 0.402863 
-0.023835 0.239904 -0.066608 -0.883466 -0.231073 0.407545 
-0.023229 0.246795 -0.066326 -0.872250 -0.262454 0.412671 
-0.022863 0.253672 -0.066155 -0.862343 -0.287512 0.416776 
-0.022710 0.260525 -0.066084 -0.854495 -0.308754 0.417744 
-0.022448 0.267394 -0.065957 -0.851456 -0.319901 0.415555 
-0.022137 0.274264 -0.065814 -0.850730 -0.328694 0.410145 
-0.021715 0.281155 -0.065617 -0.844969 -0.349918 0.404457 
-0.021948 0.287971 -0.065721 -0.840797 -0.373633 0.391738 
-0.022174 0.294780 -0.065821 -0.814981 -0.431940 0.386309 
-0.021450 0.301711 -0.065489 -0.805312 -0.472154 0.358530 
-0.020340 0.308679 -0.064981 -0.735976 -0.575812 0.356061 
-0.019149 0.315668 -0.064431 -0.664534 -0.679336 0.311281 
-0.020584 0.322340 -0.065086 -0.587656 -0.760934 0.275030 
-0.026749 0.328411 -0.067886 -0.384499 -0.899132 0.209103 
-0.040038 0.333555 -0.073928 -0.176516 -0.967675 0.180132 
-0.051699 0.338867 -0.079224 -0.106988 -0.982050 0.155347 
-0.061800 0.344330 -0.083816 -0.138161 -0.980639 0.138776 
-0.067137 0.350386 -0.086245 -0.244676 -0.960003 0.136121 
-0.071231 0.356586 -0.088103 -0.293508 -0.947522 0.126708 
-0.074091 0.362947 -0.089403 -0.347731 -0.930888 0.111951 
-0.076362 0.369376 -0.090434 -0.398999 -0.911812 0.096959 
-0.079404 0.375684 -0.091807 -0.452598 -0.888654 0.073821 
